-68.514682274998 48.478860226129 20.469158009422 0 0
-68.514682274998 48.478860226129 20.469158009422 0 0
-68.514681940998 48.478861647208 20.192858008600 0 0
-68.514681902985 48.478861802386 20.169158008703 0 0
-68.514681862315 48.478861883971 20.169158013102 0 0
-68.514681622728 48.478862139760 20.152141422813 0 0
-68.514681609976 48.478862137561 20.142481277409 0 0
-68.514681940999 48.478862508001 20.069158010344 0 0
-68.514681940999 48.478862523937 20.069158009429 0 0
-68.514682067096 48.478862732946 20.067830840738 0 0
-68.514682107999 48.478862807959 20.069158010871 0 0
-68.514682116043 48.478862910269 20.069149117582 0 0
-68.514682117473 48.478862934228 20.069147562483 0 0
-68.514680661008 48.478863832780 19.963059615698 0 0
-68.514680659508 48.478863845289 19.963306742443 0 0
-68.514680406139 48.478864059129 19.969158010743 0 0
-68.514680390535 48.478864059129 19.969158010743 0 0
-68.514680061118 48.478864018862 19.967564308261 0 0
-68.514680015560 48.478863999183 19.966793190286 0 0
-68.514679826625 48.478864059129 19.969158010743 0 0
-68.514679494779 48.478864059129 19.969158010743 0 0
-68.514679013354 48.478863837581 19.966634455081 0 0
-68.514678503791 48.478863559129 19.969158010136 0 0
-68.514678465882 48.478863559129 19.969158010136 0 0
-68.514677950276 48.478863398011 19.962908923883 0 0
-68.514677969922 48.478863418140 19.963741359302 0 0
-68.514678088293 48.478863559129 19.969158010136 0 0
-68.514677569898 48.478863424439 19.963661891262 0 0
-68.514677709177 48.478863610334 19.868801614406 0 0
-68.514677497858 48.478863655169 19.962605136965 0 0
-68.514677327859 48.478863645480 19.962561008351 0 0
-68.514677601062 48.478863838247 19.967144544467 0 0
-68.514678476611 48.478863623773 19.964045049077 0 0
-68.514679546640 48.478863237417 20.008066868975 0 0
-68.514679619198 48.478863208446 20.016766869566 0 0
-68.514681589073 48.478862319092 20.080258010673 0 0
-68.514681683787 48.478862271735 20.087358010258 0 0
-68.514683284169 48.478861295193 20.162566871294 0 0
-68.514684139728 48.478861226129 20.169158009871 0 0
-68.514683809658 48.478861161902 20.166210687161 0 0
-68.514683380893 48.478861787076 20.169158011140 0 0
-68.514682764123 48.478862201289 20.169141221155 0 0
-68.514680727703 48.478862959913 20.128344448508 0 0
-68.514679323025 48.478863818772 20.266231770321 0 0
-68.514679885451 48.478863196791 20.262566870766 0 0
-68.514680830049 48.478862642391 20.289506909631 0 0
-68.514681290545 48.478862551709 20.369141040627 0 0
-68.514681073953 48.478862765354 20.369147088266 0 0
-68.514680423266 48.478862985524 20.296461004404 0 0
-68.514680313511 48.478863059129 20.269158007399 0 0
-68.514680334095 48.478862940581 20.233558011576 0 0
-68.514680429671 48.478862380175 20.266535075232 0 0
-68.514681590407 48.478861781129 20.169158008746 0 0
-68.514682040291 48.478861124130 20.163275063402 0 0
-68.514682444454 48.478861063960 20.167171374162 0 0
-68.514682901038 48.478860913049 20.257158008586 0 0
-68.514682789016 48.478860877113 20.265308316827 0 0
-68.514682622064 48.478860995009 20.262033010980 0 0
-68.514682779219 48.478861185319 20.266497057482 0 0
-68.514682607998 48.478861393129 20.269158012026 0 0
-68.514682619784 48.478861387504 20.269145066007 0 0
-68.514682480049 48.478861393216 20.360950112801 0 0
-68.514682851524 48.478861482603 20.369158010641 0 0
-68.514683297998 48.478861154653 20.369158009111 0 0
-68.514684181045 48.478860569192 20.369141040001 0 0
-68.514684678504 48.478860166256 20.366796085820 0 0
-68.514684384884 48.478860479456 20.368573476227 0 0
-68.514684057397 48.478860776730 20.469158011129 0 0
-68.514683471123 48.478860768908 20.460483125939 0 0
-68.514683572241 48.478860930833 20.464245531280 0 0
-68.514684160436 48.478860840691 20.469158011600 0 0
-68.514684212206 48.478860788921 20.469158009525 0 0
-68.514684447374 48.478860530111 20.569150941195 0 0
-68.514684443312 48.478860453129 20.569155428726 0 0
-68.514683477246 48.478860359604 20.667175682852 0 0
-68.514682779452 48.478860644092 20.667412624722 0 0
-68.514682440998 48.478860893129 20.669158010656 0 0
-68.514682440998 48.478860893129 20.669158010656 0 0
-68.514682280310 48.478860893129 20.669158013230 0 0
-68.514682250449 48.478860893129 20.669158013230 0 0
-68.514682107998 48.478860893129 20.669158010656 0 0
-68.514682107998 48.478860893129 20.669158010656 0 0
-68.514681684019 48.478861039579 20.668381597976 0 0
-68.514681680142 48.478861059129 20.669158010472 0 0
-68.514681119442 48.478861135695 20.665490838276 0 0
-68.514680085753 48.478861756488 20.663836438671 0 0
-68.514680111935 48.478861787860 20.665036631158 0 0
-68.514679758017 48.478861965083 20.662566870606 0 0
-68.514680042360 48.478862188096 20.670067034255 0 0
-68.514679851902 48.478862177874 20.666526184216 0 0
-68.514679968479 48.478862265565 20.668383001522 0 0
-68.514679668833 48.478862204169 20.582930970832 0 0
-68.514679587256 48.478862178256 20.560823051597 0 0
-68.514679850915 48.478862300455 20.617854654470 0 0
-68.514679742078 48.478862229315 20.666545400632 0 0
-68.514679232564 48.478862596659 20.564109649641 0 0
-68.514679354848 48.478862631579 20.617850277843 0 0
-68.514679355786 48.478862631131 20.617849243234 0 0
-68.514679234563 48.478862435329 20.612331728798 0 0
-68.514679792755 48.478862465212 20.565518952365 0 0
-68.514679902370 48.478862474236 20.567285139578 0 0
-68.514680210870 48.478862393129 20.569158010453 0 0
-68.514680233155 48.478862097027 20.488123691408 0 0
-68.514680227001 48.478862093197 20.489777654293 0 0
-68.514680626898 48.478862005770 20.566379457310 0 0
-68.514680792628 48.478861842281 20.567283993626 0 0
-68.514681138225 48.478861529083 20.569158009855 0 0
-68.514681215598 48.478861390898 20.568013329861 0 0
-68.514681149712 48.478861151517 20.614970656491 0 0
-68.514681607998 48.478861057137 20.569158011434 0 0
-68.514681517915 48.478860944377 20.617854656253 0 0
-68.514681551933 48.478860761372 20.616307711083 0 0
-68.514681475683 48.478860739411 20.563188533386 0 0
-68.514681693634 48.478860737853 20.563153418659 0 0
-68.514681693303 48.478860737666 20.563146067666 0 0
-68.514682107998 48.478860899456 20.569158010493 0 0
-68.514682107998 48.478860967388 20.569158010247 0 0
-68.514682477817 48.478861341853 20.574591858142 0 0
-68.514682419414 48.478861397265 20.487847786027 0 0
-68.514682305512 48.478861281517 20.514767095256 0 0
-68.514682392341 48.478861390615 20.465467108792 0 0
-68.514682774998 48.478861591694 20.369158010946 0 0
-68.514682774998 48.478861615408 20.369158010672 0 0
-68.514683251008 48.478861955725 20.286306794245 0 0
-68.514683229531 48.478861958934 20.271289276525 0 0
-68.514683266454 48.478862137780 20.218022349590 0 0
-68.514683102569 48.478862101477 20.170171560419 0 0
-68.514683086957 48.478862601213 20.069158008492 0 0
-68.514682733428 48.478862677215 20.063305681397 0 0
-68.514682466080 48.478863471033 19.863999007670 0 0
-68.514682275759 48.478863356556 19.761295715036 0 0
-68.514682607999 48.478863559129 19.769158009159 0 0
-68.514682667935 48.478863493418 19.667268267325 0 0
-68.514682994604 48.478863668756 19.606575987205 0 0
-68.514683250462 48.478863707887 19.541482382865 0 0
-68.514682988917 48.478863719513 19.373581509769 0 0
-68.514683685374 48.478863986247 19.269150001590 0 0
-68.514684037016 48.478863631564 19.230056210067 0 0
-68.514684516706 48.478862778889 19.162608097830 0 0
-68.514685121207 48.478862392184 19.164195199544 0 0
-68.514685842026 48.478861944293 19.165733791387 0 0
-68.514685916677 48.478861577583 19.159990847496 0 0
-68.514686269679 48.478861671563 19.167156027623 0 0
-68.514683439999 48.478863643630 19.169158011382 0 0
-68.514682440999 48.478864025597 19.269158010177 0 0
-68.514682680036 48.478863475184 19.268419506072 0 0
-68.514682863546 48.478862851542 19.263861715963 0 0
-68.514681118386 48.478862212932 19.462566870463 0 0
-68.514681578824 48.478861822766 19.465090776830 0 0
-68.514682321833 48.478861294733 19.475770288057 0 0
-68.514682909177 48.478860713284 19.547304281516 0 0
-68.514683882256 48.478860239886 19.569158010688 0 0
-68.514684395476 48.478859843629 19.569158011502 0 0
-68.514684632538 48.478859240196 19.562566870116 0 0
-68.514683931999 48.478859902129 19.569158009875 0 0
-68.514683338861 48.478860142711 19.542039842678 0 0
-68.514683042153 48.478860213631 19.471799743071 0 0
-68.514683021521 48.478860330662 19.558194785084 0 0
-68.514683569588 48.478860405564 19.574586547122 0 0
-68.514683409525 48.478859682951 19.560756990431 0 0
-68.514684017682 48.478859503261 19.566964336258 0 0
-68.514685110486 48.478858977808 19.574373481639 0 0
-68.514685172281 48.478858636129 19.569158010990 0 0
-68.514686023610 48.478857873337 19.569885820443 0 0
-68.514685826154 48.478857563948 19.562566869252 0 0
-68.514686128657 48.478857388932 19.562566869163 0 0
-68.514686167169 48.478857388932 19.562566869163 0 0
-68.514686096724 48.478857546738 19.563857433139 0 0
-68.514685984796 48.478857590088 19.563941596622 0 0
-68.514686685255 48.478857481873 19.569158010103 0 0
-68.514686866407 48.478857300721 19.569158010017 0 0
-68.514687392148 48.478856763660 19.568889998720 0 0
-68.514687544859 48.478856546695 19.568587984056 0 0
-68.514687675369 48.478855907388 19.564371820831 0 0
-68.514687930540 48.478855914108 19.569158009776 0 0
-68.514687812716 48.478855826298 19.566524607225 0 0
-68.514687866946 48.478855892501 19.569132999125 0 0
-68.514687341925 48.478855967521 19.566068214368 0 0
-68.514687665855 48.478855419076 19.565324893421 0 0
-68.514687878651 48.478855186626 19.566181753059 0 0
-68.514688034562 48.478854917598 19.567829400524 0 0
-68.514687997163 48.478854819172 19.566448716011 0 0
-68.514687946955 48.478854766256 19.565239955977 0 0
-68.514687900992 48.478854717789 19.564143567996 0 0
-68.514687733773 48.478854457645 19.562565435693 0 0
-68.514687715482 48.478854442003 19.562563643339 0 0
-68.514687225426 48.478854924805 19.616622191302 0 0
-68.514687401669 48.478854732755 19.562566869263 0 0
-68.514687842915 48.478854638784 19.617854654954 0 0
-68.514688151775 48.478854529952 19.565973260953 0 0
-68.514688628783 48.478854678390 19.574077558309 0 0
-68.514688362820 48.478854082047 19.561008642098 0 0
-68.514689232846 48.478853961368 19.615491179216 0 0
-68.514689237957 48.478853960978 19.616162078198 0 0
-68.514689310464 48.478853678749 19.669141043907 0 0
-68.514689156080 48.478853204391 19.662556662448 0 0
-68.514689397677 48.478853167232 19.718701511600 0 0
-68.514689302056 48.478853226129 19.669158010582 0 0
-68.514688685396 48.478853493923 19.721162908201 0 0
-68.514688781295 48.478853481813 19.568079750861 0 0
-68.514688995988 48.478853279636 19.569073632295 0 0
-68.514688996987 48.478853277830 19.569078275576 0 0
-68.514689019594 48.478852986253 19.617838058624 0 0
-68.514689255079 48.478852920174 19.608641041783 0 0
-68.514689325885 48.478852699969 19.658517130387 0 0
-68.514689433580 48.478852468621 19.717854655151 0 0
-68.514689790599 48.478852274380 19.671010902037 0 0
-68.514689612886 48.478851890132 19.715881029304 0 0
-68.514689450687 48.478851703637 19.663706406284 0 0
-68.514689259870 48.478851694303 19.667896612266 0 0
-68.514688794617 48.478851881034 19.668677050252 0 0
-68.514688494872 48.478851819442 19.666417913218 0 0
-68.514688309430 48.478851779473 19.664624601817 0 0
-68.514688333130 48.478851585983 19.748715104627 0 0
-68.514688822379 48.478851625792 19.769030970708 0 0
-68.514688831327 48.478851339750 19.817854655201 0 0
-68.514689222423 48.478851244598 19.771123419727 0 0
-68.514688750093 48.478850886499 19.811408118085 0 0
-68.514689456437 48.478851214719 19.776571926090 0 0
-68.514689294200 48.478851084292 19.823564403461 0 0
-68.514688625087 48.478851060048 19.767950996290 0 0
-68.514688162984 48.478850885018 19.811404751472 0 0
-68.514688111669 48.478851019025 19.762566869319 0 0
-68.514687898998 48.478851351713 19.693958011308 0 0
-68.514687485396 48.478851448190 19.668160559365 0 0
-68.514687053493 48.478851668921 19.670777057404 0 0
-68.514686496110 48.478851782241 19.669158009505 0 0
-68.514686435063 48.478851813007 19.669151115627 0 0
-68.514686270979 48.478851723849 19.717120218322 0 0
-68.514685998780 48.478852030411 19.669158011223 0 0
-68.514685821035 48.478851966456 19.699854655577 0 0
-68.514685417093 48.478851799993 19.611408119007 0 0
-68.514685613008 48.478852221119 19.569158009664 0 0
-68.514685478169 48.478852173202 19.594054653410 0 0
-68.514685232753 48.478852164587 19.499169240979 0 0
-68.514685203546 48.478852480571 19.516429942801 0 0
-68.514685272439 48.478852579686 19.467409533789 0 0
-68.514684545521 48.478852363939 19.609260973751 0 0
-68.514684693629 48.478852908143 19.519916999508 0 0
-68.514684768819 48.478853022870 19.471442814498 0 0
-68.514684356417 48.478852948732 19.464917039316 0 0
-68.514684467090 48.478853282897 19.472638218158 0 0
-68.514683857783 48.478853214902 19.451703209964 0 0
-68.514683833374 48.478853345191 19.380091953810 0 0
-68.514683285886 48.478853463037 19.364363458415 0 0
-68.514682944968 48.478853716218 19.313750969094 0 0
-68.514682742760 48.478853772913 19.358606444634 0 0
-68.514682580517 48.478853888932 19.262566870742 0 0
-68.514682786784 48.478854059129 19.269158012027 0 0
-68.514682512683 48.478853968425 19.211461996259 0 0
-68.514682630547 48.478854239250 19.216092868085 0 0
-68.514682848139 48.478854452608 19.119516352390 0 0
-68.514682368142 48.478854695956 19.175977183410 0 0
-68.514682755450 48.478855046249 19.061967632659 0 0
-68.514682272273 48.478854940088 19.069575188176 0 0
-68.514682021757 48.478854962638 19.117854653685 0 0
-68.514682006434 48.478855110065 19.069158009666 0 0
-68.514681594743 48.478855009005 19.062566869824 0 0
-68.514681344449 48.478854966994 19.111408119235 0 0
-68.514681586777 48.478855188112 19.067993241690 0 0
-68.514681786783 48.478855298122 19.044716562311 0 0
-68.514681380912 48.478855042184 19.014274083766 0 0
-68.514681494983 48.478855081728 18.963541498370 0 0
-68.514681662564 48.478855137176 18.966125313274 0 0
-68.514682172295 48.478855163805 18.974061808957 0 0
-68.514681901727 48.478854989481 18.991715269459 0 0
-68.514681604645 48.478854811598 18.911873215126 0 0
-68.514681757484 48.478854937536 18.864528504233 0 0
-68.514681254649 48.478854975877 18.941252223549 0 0
-68.514680945388 48.478855302709 18.932094263973 0 0
-68.514680549112 48.478855528562 18.967665721867 0 0
-68.514680644282 48.478855721016 19.023420977194 0 0
-68.514680384726 48.478855732384 18.927146562965 0 0
-68.514680106934 48.478855702793 18.917722908426 0 0
-68.514680506125 48.478856014447 18.876847097007 0 0
-68.514680117754 48.478855868214 18.868169366808 0 0
-68.514681225236 48.478855539201 18.765390524329 0 0
-68.514681731702 48.478855252670 18.817854654369 0 0
-68.514681948393 48.478855222775 18.769149462439 0 0
-68.514682492877 48.478854918895 18.817851353020 0 0
-68.514683602208 48.478854957933 18.743768744633 0 0
-68.514683523935 48.478854912327 18.670458253242 0 0
-68.514683296634 48.478854854739 18.685154655894 0 0
-68.514682905358 48.478855106236 18.617854654736 0 0
-68.514682524674 48.478855431538 18.568482625464 0 0
-68.514682492778 48.478855788317 18.573186820855 0 0
-68.514682017916 48.478855637465 18.517854655356 0 0
-68.514681803249 48.478855623322 18.461888944903 0 0
-68.514682300167 48.478855821261 18.462915277299 0 0
-68.514682625243 48.478855931881 18.465885984925 0 0
-68.514683393014 48.478855957953 18.366626637248 0 0
-68.514684016576 48.478856022072 18.375807774808 0 0
-68.514684462931 48.478855530089 18.417827421030 0 0
-68.514685648385 48.478855286578 18.311806201150 0 0
-68.514686742515 48.478855407310 18.269809900373 0 0
-68.514686766320 48.478855410853 18.269973415281 0 0
-68.514686848632 48.478855162086 18.312470063638 0 0
-68.514686912389 48.478855226198 18.262689763759 0 0
-68.514687384677 48.478855283820 18.269155840594 0 0
-68.514687516499 48.478855200913 18.269158009797 0 0
-68.514688342626 48.478854951068 18.272098010122 0 0
-68.514688217761 48.478854719974 18.266154652742 0 0
-68.514688970539 48.478854775666 18.327422860715 0 0
-68.514688675052 48.478854326286 18.261353291138 0 0
-68.514689367805 48.478854144793 18.316459884890 0 0
-68.514689594167 48.478853902208 18.262084628493 0 0
-68.514690094188 48.478853907554 18.269155530927 0 0
-68.514690597891 48.478853679738 18.273064292140 0 0
-68.514690676350 48.478853609287 18.324655557441 0 0
-68.514690996019 48.478853850303 18.229787373493 0 0
-68.514690677012 48.478853689306 18.323447992973 0 0
-68.514690606735 48.478853791713 18.272512799350 0 0
-68.514690472395 48.478853726130 18.269158010319 0 0
-68.514690401517 48.478853633457 18.317854654763 0 0
-68.514690381251 48.478853610458 18.264564185587 0 0
-68.514690815995 48.478853526476 18.267060111508 0 0
-68.514690887792 48.478853513861 18.268504275146 0 0
-68.514691253595 48.478853603389 18.212820870559 0 0
-68.514691978490 48.478853121529 18.376124197153 0 0
-68.514692345701 48.478853010413 18.379025222768 0 0
-68.514692903289 48.478852090671 18.367603631487 0 0
-68.514692890409 48.478851886570 18.414727490600 0 0
-68.514693556460 48.478851727421 18.418504703906 0 0
-68.514693583186 48.478851575314 18.415415959429 0 0
-68.514693666849 48.478851850370 18.366745928903 0 0
-68.514693664445 48.478852003022 18.369158009549 0 0
-68.514693609001 48.478852058134 18.369158010239 0 0
-68.514693914727 48.478852400190 18.426522877100 0 0
-68.514693674090 48.478852453013 18.401991098786 0 0
-68.514693374477 48.478852416990 18.462427513032 0 0
-68.514693477672 48.478852478239 18.465978088248 0 0
-68.514694210618 48.478852329454 18.556083428753 0 0
-68.514694220628 48.478852330665 18.557323375121 0 0
-68.514694358545 48.478852087245 18.570675709014 0 0
-68.514694274864 48.478852056018 18.568976273365 0 0
-68.514693985810 48.478852285732 18.605818549962 0 0
-68.514693449346 48.478852077883 18.753554268416 0 0
-68.514693365366 48.478852375595 18.714099692546 0 0
-68.514693402148 48.478853175906 18.728409933569 0 0
-68.514692116311 48.478853437517 18.664842718112 0 0
-68.514692113575 48.478853639938 18.669153294863 0 0
-68.514691720849 48.478853787382 18.725256103880 0 0
-68.514691386646 48.478853705190 18.866545272115 0 0
-68.514691223128 48.478853860959 18.767883039873 0 0
-68.514691087610 48.478853730190 18.766441327661 0 0
-68.514690670268 48.478853546820 18.811408119808 0 0
-68.514690656458 48.478853930098 18.766847700505 0 0
-68.514690013119 48.478854358453 18.771026276423 0 0
-68.514688961929 48.478854916227 18.821967064082 0 0
-68.514687885039 48.478855052460 18.851838463863 0 0
-68.514687903881 48.478855389951 18.873328863717 0 0
-68.514687359322 48.478855173655 18.913848648047 0 0
-68.514687523069 48.478855116633 18.816292183037 0 0
-68.514687330301 48.478854873401 18.913137763845 0 0
-68.514687820114 48.478855206165 18.880663546601 0 0
-68.514687248448 48.478854957545 18.920170389085 0 0
-68.514686580652 48.478855239783 18.969158010048 0 0
-68.514686508616 48.478855275747 18.969158011516 0 0
-68.514685118641 48.478855887930 18.967321520531 0 0
-68.514684450381 48.478856436285 18.918413506146 0 0
-68.514684251423 48.478856438281 19.018210381364 0 0
-68.514683491452 48.478856638412 18.962443433981 0 0
-68.514683716132 48.478856799760 19.019996671418 0 0
-68.514683335123 48.478856650510 18.966339461522 0 0
-68.514683360484 48.478856623036 19.017706603621 0 0
-68.514683642613 48.478856958672 18.980022116536 0 0
-68.514682693535 48.478856473193 19.011393107284 0 0
-68.514682774133 48.478857088527 19.071811101351 0 0
-68.514682260448 48.478856790171 19.111408118763 0 0
-68.514681184916 48.478857633456 19.217854655475 0 0
-68.514681737152 48.478857862467 19.210697716815 0 0
-68.514681308663 48.478857444201 19.309546369510 0 0
-68.514681775843 48.478857708982 19.292282169304 0 0
-68.514681517859 48.478857526139 19.363194664750 0 0
-68.514681083094 48.478857299993 19.381508120172 0 0
-68.514681174991 48.478857474465 19.366095602966 0 0
-68.514680859653 48.478857444493 19.416980128955 0 0
-68.514680931715 48.478857539231 19.368365385315 0 0
-68.514680422879 48.478857555778 19.369150234611 0 0
-68.514680602270 48.478857629628 19.428745380519 0 0
-68.514680124875 48.478857474297 19.477987728697 0 0
-68.514680091272 48.478857386989 19.528488903821 0 0
-68.514679304413 48.478856797582 19.466318331193 0 0
-68.514679108237 48.478856598245 19.514098745554 0 0
-68.514679122881 48.478856638338 19.465710789083 0 0
-68.514679340446 48.478856857117 19.475327932715 0 0
-68.514678153683 48.478856812675 19.539666869839 0 0
-68.514677816179 48.478856840407 19.611408121442 0 0
-68.514677710937 48.478857005164 19.562566871873 0 0
-68.514677359991 48.478857393129 19.569158008572 0 0
-68.514677283612 48.478857338041 19.567128985241 0 0
-68.514676955458 48.478857300456 19.617854653959 0 0
-68.514676990431 48.478857393129 19.569158008572 0 0
-68.514676493592 48.478856988070 19.512254418274 0 0
-68.514676797974 48.478857139789 19.518162034036 0 0
-68.514676805633 48.478857244316 19.516262418084 0 0
-68.514676974016 48.478857311974 19.466226080232 0 0
-68.514677509182 48.478857469047 19.476152255780 0 0
-68.514676904051 48.478857027027 19.512067888899 0 0
-68.514677647979 48.478857268356 19.471547713195 0 0
-68.514677605101 48.478856925543 19.363952699312 0 0
-68.514677857262 48.478856966456 19.417854654936 0 0
-68.514678364419 48.478857160866 19.426858847878 0 0
-68.514677706366 48.478856934816 19.410464371572 0 0
-68.514677828524 48.478856987894 19.362444564755 0 0
-68.514678035375 48.478857001508 19.366925788189 0 0
-68.514678476386 48.478857041591 19.338421225201 0 0
-68.514678286158 48.478856698947 19.311407172904 0 0
-68.514678558578 48.478856551492 19.312243581703 0 0
-68.514679337643 48.478856835759 19.327321394510 0 0
-68.514679502291 48.478856934194 19.328681742386 0 0
-68.514679162221 48.478856968304 19.219488783376 0 0
-68.514678840825 48.478857068330 19.267195930295 0 0
-68.514678674756 48.478857161977 19.265193095552 0 0
-68.514678277651 48.478857547677 19.264162780663 0 0
-68.514678290436 48.478857785339 19.267803079015 0 0
-68.514677532950 48.478858171446 19.216008449350 0 0
-68.514677260101 48.478858226677 19.211660799716 0 0
-68.514677861878 48.478858602256 19.224297711719 0 0
-68.514677933721 48.478858527876 19.170800177120 0 0
-68.514677579634 48.478858116794 19.262471628446 0 0
-68.514678231993 48.478858159361 19.218920429961 0 0
-68.514678011511 48.478857939524 19.262507847331 0 0
-68.514678938474 48.478858288687 19.229107740873 0 0
-68.514678642334 48.478858050309 19.169288184860 0 0
-68.514678461410 48.478857796403 19.265185786611 0 0
-68.514679084554 48.478857879510 19.222391615972 0 0
-68.514678838183 48.478857514272 19.213318479104 0 0
-68.514678986037 48.478857672806 19.217069660733 0 0
-68.514678911959 48.478857675726 19.265639921985 0 0
-68.514679006682 48.478857680470 19.265914468060 0 0
-68.514678949998 48.478857479044 19.246837897960 0 0
-68.514679457788 48.478857519638 19.263203236547 0 0
-68.514679455477 48.478857391165 19.331732135695 0 0
-68.514678974949 48.478856777509 19.414050600720 0 0
-68.514678649795 48.478856520405 19.430856068703 0 0
-68.514678123093 48.478856104189 19.511408119588 0 0
-68.514677929404 48.478855987021 19.501735372534 0 0
-68.514678006234 48.478855959199 19.617838059804 0 0
-68.514677633283 48.478855853140 19.666069560619 0 0
-68.514677083093 48.478855738905 19.711408120846 0 0
-68.514677235316 48.478855761341 19.748883250470 0 0
-68.514677240812 48.478855764436 19.750506386287 0 0
-68.514677267189 48.478855779288 19.758299181851 0 0
-68.514677411027 48.478855561698 19.802693131292 0 0
-68.514677501169 48.478855388932 19.862566869646 0 0
-68.514677527181 48.478855358556 19.913788902338 0 0
-68.514677852327 48.478855835982 20.027343697588 0 0
-68.514677463502 48.478856033244 20.025432715967 0 0
-68.514676859427 48.478856122225 20.017676891272 0 0
-68.514676726443 48.478856044100 20.014538102878 0 0
-68.514677077694 48.478856440431 19.971691969871 0 0
-68.514676660074 48.478856140598 19.962560290002 0 0
-68.514676698161 48.478856075240 19.963295569484 0 0
-68.514677108515 48.478856300571 19.972660873551 0 0
-68.514677084564 48.478856208919 20.022350028162 0 0
-68.514677403125 48.478855854320 19.970453833275 0 0
-68.514677001169 48.478855388932 20.062566870383 0 0
-68.514676802201 48.478855404964 19.962566870434 0 0
-68.514676722947 48.478855444710 19.962566870519 0 0
-68.514677057069 48.478855685518 20.023168349433 0 0
-68.514676376186 48.478855741473 20.018028907979 0 0
-68.514676198457 48.478855871095 20.019521540285 0 0
-68.514675708486 48.478855920735 19.963846329313 0 0
-68.514676235938 48.478856254394 19.978369436971 0 0
-68.514676089331 48.478856138489 20.026019585288 0 0
-68.514675782269 48.478856124177 19.968786614408 0 0
-68.514675725878 48.478856076348 19.966037278388 0 0
-68.514676191121 48.478856260820 20.027350864353 0 0
-68.514675748244 48.478855971285 20.067559786750 0 0
-68.514676184321 48.478855811083 20.019877649627 0 0
-68.514676002334 48.478855638597 19.962566870473 0 0
-68.514676673398 48.478855659185 19.973845180327 0 0
-68.514676051729 48.478855395453 19.962551094395 0 0
-68.514675940839 48.478855546414 19.963993281720 0 0
-68.514675700715 48.478855558162 19.962649191818 0 0
-68.514675550603 48.478855479184 20.011887130156 0 0
-68.514675638443 48.478855619950 19.965106225743 0 0
-68.514675626326 48.478855841891 19.968380645304 0 0
-68.514675382906 48.478855815405 19.944511383287 0 0
-68.514675175634 48.478855713463 19.977188472174 0 0
-68.514675444209 48.478856035493 19.936864951779 0 0
-68.514675193909 48.478855793948 19.863932218859 0 0
-68.514675854089 48.478855748628 19.874253808419 0 0
-68.514676359325 48.478855752097 19.878266761336 0 0
-68.514676378897 48.478855828275 19.878854788093 0 0
-68.514675697595 48.478855568819 19.863303619764 0 0
-68.514675598294 48.478855671331 19.864268244634 0 0
-68.514675287190 48.478855897003 19.864388905202 0 0
-68.514675290254 48.478855904449 19.864540280838 0 0
-68.514675452259 48.478856049304 19.869041098408 0 0
-68.514675284828 48.478855954378 19.865216729089 0 0
-68.514675021639 48.478855804624 19.911593450667 0 0
-68.514675207682 48.478855990848 19.866504577430 0 0
-68.514675461841 48.478856051096 19.869492012315 0 0
-68.514675282366 48.478855899458 19.915604786385 0 0
-68.514674689094 48.478856234193 19.909425571888 0 0
-68.514674770326 48.478856323303 19.860558457711 0 0
-68.514674757424 48.478856383787 19.861417566016 0 0
-68.514674478336 48.478856703471 19.863032164954 0 0
-68.514674882634 48.478857021031 19.873952159868 0 0
-68.514674377155 48.478857284531 19.871226384064 0 0
-68.514674307827 48.478857293541 19.870332624501 0 0
-68.514673773536 48.478857222478 19.913502274555 0 0
-68.514674102658 48.478857663171 19.875141173107 0 0
-68.514674013903 48.478857818491 19.928119965874 0 0
-68.514673888499 48.478857925913 19.877151999974 0 0
-68.514673876881 48.478857926297 19.877054386317 0 0
-68.514673113824 48.478857980749 19.922939089326 0 0
-68.514672960421 48.478858113299 19.872374226176 0 0
-68.514672705816 48.478858201898 19.921425930897 0 0
-68.514672435600 48.478858600900 19.868364120749 0 0
-68.514672090907 48.478858859054 19.932988043249 0 0
-68.514671815072 48.478858864027 20.012816306679 0 0
-68.514671881848 48.478858975722 19.963598323285 0 0
-68.514672202922 48.478859440602 20.022575306935 0 0
-68.514672009553 48.478859448274 20.019734507162 0 0
-68.514672426062 48.478859755984 19.979417814294 0 0
-68.514672264592 48.478859724683 20.110548371805 0 0
-68.514672553252 48.478860111959 20.078317502405 0 0
-68.514672380450 48.478860007419 20.123889202724 0 0
-68.514672677162 48.478860431613 20.218671482764 0 0
-68.514673038314 48.478860722764 20.180663546109 0 0
-68.514672250093 48.478860453967 20.211408120109 0 0
-68.514672744427 48.478861184362 20.222584993886 0 0
-68.514672778986 48.478861660966 20.323104984055 0 0
-68.514672822624 48.478861813179 20.273331420838 0 0
-68.514672592463 48.478861803894 20.316520806189 0 0
-68.514672926150 48.478862037692 20.389422043455 0 0
-68.514672641376 48.478861966993 20.411408119957 0 0
-68.514672747496 48.478862055932 20.362566869826 0 0
-68.514673162486 48.478862029151 20.466337511044 0 0
-68.514673620007 48.478862251730 20.370587927125 0 0
-68.514673938301 48.478862351956 20.426223295312 0 0
-68.514673976394 48.478862429431 20.424277790233 0 0
-68.514673663208 48.478862260240 20.436502385464 0 0
-68.514674535068 48.478862848931 20.479981818476 0 0
-68.514673919653 48.478862714330 20.515021865786 0 0
-68.514674156517 48.478862270005 20.560249369428 0 0
-68.514675796945 48.478862334006 20.474272472281 0 0
-68.514676002518 48.478861766830 20.516950969191 0 0
-68.514676917597 48.478861330749 20.519214421971 0 0
-68.514676820593 48.478861054668 20.463908119350 0 0
-68.514677405537 48.478861111081 20.364798139414 0 0
-68.514677266390 48.478861911934 20.375296635847 0 0
-68.514677194738 48.478862184561 20.379406464617 0 0
-68.514676103865 48.478862606847 20.269898533104 0 0
-68.514675951571 48.478862677660 20.269340229563 0 0
-68.514675300816 48.478863177129 20.305777788364 0 0
-68.514675211712 48.478863041664 20.214542668938 0 0
-68.514675570597 48.478863084930 20.219153458982 0 0
-68.514676220310 48.478863127037 20.225349945898 0 0
-68.514676226187 48.478863057045 20.222334611111 0 0
-68.514676821811 48.478862842800 20.170354618145 0 0
-68.514676854572 48.478862746848 20.220352950463 0 0
-68.514678463546 48.478861693587 20.147308118512 0 0
-68.514678620835 48.478861615122 20.111408118465 0 0
-68.514679007279 48.478861360717 20.112259048154 0 0
-68.514679538491 48.478861450933 20.122134005210 0 0
-68.514679429074 48.478861008337 20.062566869245 0 0
-68.514679356653 48.478860913553 20.111408120111 0 0
-68.514680583956 48.478861113812 20.207265605821 0 0
-68.514680965986 48.478861310221 20.179129621617 0 0
-68.514681165113 48.478861155857 20.223729162044 0 0
-68.514681317475 48.478861146222 20.172826359664 0 0
-68.514681302971 48.478861110145 20.217171678613 0 0
-68.514681521990 48.478861114862 20.217489692444 0 0
-68.514682993310 48.478860857516 20.320673845376 0 0
-68.514683174650 48.478860879527 20.270560314950 0 0
-68.514684131043 48.478860662405 20.324200040298 0 0
-68.514684199472 48.478860483939 20.319110660256 0 0
-68.514684735498 48.478860364356 20.317968799573 0 0
-68.514685128346 48.478860456416 20.272598696462 0 0
-68.514684591204 48.478860132389 20.311448417390 0 0
-68.514684536731 48.478860337702 20.313616783178 0 0
-68.514684261684 48.478860332657 20.246667477370 0 0
-68.514684169343 48.478860609905 20.218964902565 0 0
-68.514684300292 48.478860767827 20.224256032590 0 0
-68.514683890212 48.478860750782 20.218370199442 0 0
-68.514683961845 48.478860825251 20.219966270751 0 0
-68.514684900175 48.478859976766 20.216123380487 0 0
-68.514685266603 48.478859875941 20.219877649131 0 0
-68.514685312028 48.478859877269 20.191877649307 0 0
-68.514684835489 48.478859879685 20.114661251594 0 0
-68.514685020595 48.478860057786 20.121746227626 0 0
-68.514684156531 48.478860096672 20.113135540930 0 0
-68.514683668082 48.478860185816 20.109594797151 0 0
-68.514684189435 48.478860267105 20.117133771420 0 0
-68.514685013072 48.478860069978 20.121944668733 0 0
-68.514685417093 48.478859466993 20.011408120794 0 0
-68.514685886941 48.478859715000 20.021890423856 0 0
-68.514685583432 48.478859728036 19.915062151199 0 0
-68.514685550894 48.478859720071 19.914480744505 0 0
-68.514685222073 48.478859662656 19.837493646787 0 0
-68.514685190457 48.478859608461 19.814804395770 0 0
-68.514685567320 48.478859730374 19.697195427283 0 0
-68.514686144739 48.478859542849 19.724723177966 0 0
-68.514685833036 48.478859286809 19.715515403265 0 0
-68.514686707018 48.478859323989 19.656354312289 0 0
-68.514686659443 48.478859245018 19.692201167862 0 0
-68.514686497282 48.478859029646 19.613947258942 0 0
-68.514686593513 48.478859070640 19.615642133479 0 0
-68.514686663087 48.478859220479 19.559308118551 0 0
-68.514686885122 48.478859552005 19.465136363053 0 0
-68.514687516482 48.478859562735 19.524123003213 0 0
-68.514687925477 48.478859348537 19.473522757292 0 0
-68.514688030117 48.478858898588 19.515567307184 0 0
-68.514688330385 48.478858816969 19.512089176809 0 0
-68.514688328627 48.478858810538 19.511830656266 0 0
-68.514688810029 48.478859470464 19.614657716415 0 0
-68.514689325504 48.478859220561 19.685332429852 0 0
-68.514689426747 48.478859292532 19.641376267304 0 0
-68.514689386365 48.478858664537 19.711408119243 0 0
-68.514689417093 48.478858723467 19.711408119935 0 0
-68.514688454240 48.478860095964 19.671918643577 0 0
-68.514688344406 48.478860010228 19.720551518086 0 0
-68.514687588048 48.478859962911 19.662472556128 0 0
-68.514687903816 48.478860127518 19.720850565687 0 0
-68.514687003012 48.478859946598 19.710159445685 0 0
-68.514686938463 48.478860034468 19.711303261890 0 0
-68.514686463148 48.478860144700 19.760218493368 0 0
-68.514686105888 48.478860292992 19.708710147002 0 0
-68.514685604620 48.478861074219 19.820094227070 0 0
-68.514684904149 48.478861400695 19.819215384290 0 0
-68.514684483474 48.478861914939 19.829107740954 0 0
-68.514682837494 48.478861876259 19.816481996570 0 0
-68.514682114276 48.478861875811 19.811408118878 0 0
-68.514681671670 48.478862040285 19.761952806608 0 0
-68.514681461139 48.478862182902 19.820558536760 0 0
-68.514680653240 48.478861909484 19.809169217602 0 0
-68.514680559778 48.478862097341 19.916760411360 0 0
-68.514679775030 48.478861953678 19.981685392474 0 0
-68.514679907996 48.478862158975 20.045789027781 0 0
-68.514679726753 48.478862385442 20.221129726560 0 0
-68.514678715619 48.478862261015 20.310375738561 0 0
-68.514678865157 48.478862994729 20.374357476358 0 0
-68.514677851079 48.478862949100 20.410230795875 0 0
-68.514678065391 48.478863350304 20.481472914883 0 0
-68.514678064863 48.478863548676 20.521909146151 0 0
-68.514677835704 48.478863478006 20.513233084449 0 0
-68.514678521619 48.478863956623 20.525158652480 0 0
-68.514677720603 48.478864240669 20.517303254831 0 0
-68.514676899957 48.478864383245 20.463641544655 0 0
-68.514676786838 48.478864879629 20.421960766661 0 0
-68.514676780639 48.478864878578 20.421915591423 0 0
-68.514676523859 48.478864446704 20.311321360161 0 0
-68.514676571092 48.478864415613 20.311330408394 0 0
-68.514678555065 48.478863465544 20.320412077873 0 0
-68.514678948362 48.478863309764 20.322944960966 0 0
-68.514680172093 48.478861797163 20.386908121169 0 0
-68.514680401093 48.478861644649 20.409808119390 0 0
-68.514680855020 48.478861838322 20.419522407965 0 0
-68.514679475819 48.478862861115 20.323755902960 0 0
-68.514678494727 48.478863350653 20.320513938197 0 0
-68.514675813146 48.478864706129 20.283259353101 0 0
-68.514675000888 48.478865537938 20.222642471287 0 0
-68.514674747761 48.478865468346 20.167966400822 0 0
-68.514675360855 48.478865002596 20.224518504686 0 0
-68.514674935908 48.478864577493 20.211408120557 0 0
-68.514676593153 48.478863873390 20.224046953390 0 0
-68.514676923136 48.478863982455 20.178539397246 0 0
-68.514677168570 48.478863533822 20.221207538263 0 0
-68.514677165515 48.478863531751 20.221116900691 0 0
-68.514676287646 48.478863815706 20.114410755139 0 0
-68.514674816042 48.478864461501 20.110019988937 0 0
-68.514674327786 48.478865693760 20.028484967146 0 0
-68.514674490538 48.478864984294 20.019877647331 0 0
-68.514675741175 48.478863683864 20.017592069842 0 0
-68.514675808855 48.478863641485 20.017788381296 0 0
-68.514676863709 48.478862911392 20.018061559365 0 0
-68.514676889227 48.478862913300 20.018335994680 0 0
-68.514676992135 48.478862678577 20.013083376676 0 0
-68.514676978028 48.478863336117 20.021477649031 0 0
-68.514678227872 48.478863280836 20.267791911732 0 0
-68.514680163029 48.478862563762 20.348896627639 0 0
-68.514680712904 48.478861495903 20.513914465836 0 0
-68.514681181017 48.478861378054 20.563249369002 0 0
-68.514682237961 48.478861758145 20.571226384573 0 0
-68.514682180972 48.478861906266 20.629893458643 0 0
-68.514681294811 48.478862461011 20.716714913457 0 0
-68.514681116461 48.478863223766 20.723214135781 0 0
-68.514680883198 48.478862880235 20.784328735929 0 0
-68.514681645480 48.478862687316 20.815114867907 0 0
-68.514681635334 48.478862577232 20.812995289072 0 0
-68.514682417259 48.478862175326 20.886508120465 0 0
-68.514683087101 48.478861966992 20.911408117624 0 0
-68.514683223114 48.478862055931 20.862566871060 0 0
-68.514683310561 48.478862273830 20.912692950486 0 0
-68.514683088287 48.478862167515 21.009811042941 0 0
-68.514683509980 48.478863312161 20.928323414941 0 0
-68.514683453324 48.478863767462 20.926342611317 0 0
-68.514683375860 48.478863443273 20.917507825713 0 0
-68.514684173817 48.478863508700 21.008013525483 0 0
-68.514684032931 48.478863328212 21.020450895743 0 0
-68.514684110553 48.478863003193 21.012915745519 0 0
-68.514684367014 48.478863176871 21.017434796465 0 0
-68.514684489120 48.478863667990 21.022061816111 0 0
-68.514683790228 48.478863772070 21.011742595304 0 0
-68.514683514597 48.478864520757 21.016180189488 0 0
-68.514683513957 48.478865800190 20.929107739230 0 0
-68.514683371325 48.478865756741 20.925964160978 0 0
-68.514683213434 48.478866012207 20.930807767040 0 0
-68.514684003294 48.478865905811 21.026683617488 0 0
-68.514684353303 48.478865874023 21.029107740413 0 0
-68.514684618425 48.478865647124 21.026297582770 0 0
-68.514684250093 48.478865324541 21.026108120162 0 0
-68.514684250093 48.478865421234 21.084008121135 0 0
-68.514684250093 48.478865918562 21.075908119421 0 0
-68.514684932275 48.478866336100 21.074567653270 0 0
-68.514684636539 48.478866583571 21.016166263283 0 0
-68.514685158850 48.478866855140 21.023453565000 0 0
-68.514684943137 48.478866635110 21.011454323899 0 0
-68.514686761880 48.478865812271 21.014104542254 0 0
-68.514686790908 48.478865571731 20.944418152604 0 0
-68.514686418261 48.478865874847 20.942185979096 0 0
-68.514685844492 48.478866555645 20.833081752404 0 0
-68.514685246508 48.478866485270 20.809960884301 0 0
-68.514684746742 48.478866712626 20.766297712227 0 0
-68.514684117397 48.478867575307 20.613306192884 0 0
-68.514681827358 48.478867627196 20.183826567848 0 0
-68.514681362425 48.478867715210 20.086886685013 0 0
-68.514680966111 48.478867729508 20.026134572980 0 0
-68.514680592382 48.478867929451 20.010702963567 0 0
-68.514680480333 48.478867908774 19.974394384545 0 0
-68.514680407067 48.478868104172 19.913198286151 0 0
-68.514680839418 48.478868439575 19.924624385790 0 0
-68.514680915498 48.478867342284 19.714880476320 0 0
-68.514680541303 48.478866966993 19.648708116808 0 0
-68.514680225853 48.478866996274 19.612625821901 0 0
-68.514680292813 48.478867103664 19.597918583268 0 0
-68.514680200015 48.478867309203 19.526091530534 0 0
-68.514679819282 48.478867204670 19.521370231853 0 0
-68.514679612266 48.478867283043 19.472276389339 0 0
-68.514679501668 48.478867178614 19.520477642709 0 0
-68.514679154993 48.478866888511 19.449599152261 0 0
-68.514680562716 48.478865746631 19.318061702014 0 0
-68.514681019971 48.478865959027 19.329107740513 0 0
-68.514680733457 48.478865705603 19.274662553247 0 0
-68.514680355997 48.478865446050 19.305527087639 0 0
-68.514680100770 48.478865322532 19.162566869966 0 0
-68.514680384476 48.478865356883 19.271862865436 0 0
-68.514680377459 48.478864853550 19.174656520426 0 0
-68.514680934370 48.478864164534 19.121806572693 0 0
-68.514681784859 48.478862806318 18.972621319362 0 0
-68.514681110377 48.478862099513 18.947673459731 0 0
-68.514681363966 48.478861940533 18.921432924160 0 0
-68.514681077717 48.478861476682 18.830028013699 0 0
-68.514680978028 48.478861330790 18.819877650456 0 0
-68.514680894070 48.478861340920 18.759299370483 0 0
-68.514680433506 48.478861419207 18.716292728169 0 0
-68.514680623655 48.478861737141 18.676984264931 0 0
-68.514680316841 48.478861976062 18.668107741346 0 0
-68.514679890074 48.478861962426 18.626683615187 0 0
-68.514679159016 48.478861535048 18.611773400682 0 0
-68.514679497002 48.478861506560 18.620193196087 0 0
-68.514679069574 48.478861038873 18.612340319947 0 0
-68.514679330706 48.478861013309 18.620465918370 0 0
-68.514679217715 48.478860944593 18.617674521210 0 0
-68.514679190659 48.478860929148 18.620124869320 0 0
-68.514678786771 48.478860739373 18.613980334788 0 0
-68.514678845002 48.478860771402 18.615988529477 0 0
-68.514677847240 48.478860888269 18.512207139414 0 0
-68.514676869785 48.478861352828 18.513783954918 0 0
-68.514676005308 48.478861628985 18.618305340924 0 0
-68.514675349742 48.478862022969 18.519033283785 0 0
-68.514675213099 48.478862240513 18.522957724186 0 0
-68.514674671656 48.478861972873 18.511692273233 0 0
-68.514674558909 48.478861633412 18.517438670149 0 0
-68.514674211766 48.478861449584 18.512990340490 0 0
-68.514673981365 48.478861441699 18.617321828704 0 0
-68.514673665891 48.478861694805 18.622711012698 0 0
-68.514673671929 48.478861721561 18.623399227914 0 0
-68.514673852017 48.478861746514 18.626070537690 0 0
-68.514673787525 48.478861702257 18.572442922286 0 0
-68.514675032540 48.478860160734 18.723807688661 0 0
-68.514675006362 48.478860173225 18.720407688480 0 0
-68.514673995869 48.478860548761 18.720512571664 0 0
-68.514673926322 48.478860601726 18.721137992104 0 0
-68.514672897386 48.478861068320 18.805589083079 0 0
-68.514672781611 48.478861173571 18.736872647907 0 0
-68.514671742077 48.478861335719 18.713810492904 0 0
-68.514671841724 48.478861451754 18.665708482674 0 0
-68.514671873117 48.478861269334 18.719877648210 0 0
-68.514672168102 48.478861403860 18.726643160030 0 0
-68.514672542625 48.478860706140 18.746206561462 0 0
-68.514672374869 48.478860299093 18.825806463543 0 0
-68.514672414132 48.478860338891 18.827545726017 0 0
-68.514671983179 48.478860158665 18.819809938629 0 0
-68.514671998414 48.478860165885 18.820140779748 0 0
-68.514672552540 48.478859774146 18.851770153899 0 0
-68.514672555389 48.478859758839 18.854205755116 0 0
-68.514672772638 48.478858717086 19.010509363347 0 0
-68.514672989045 48.478858893117 18.913486409993 0 0
-68.514674322208 48.478858439349 18.928314576414 0 0
-68.514673268598 48.478857662235 19.106774006629 0 0
-68.514674356316 48.478857799329 18.971948295729 0 0
-68.514674061774 48.478857469733 19.117462492428 0 0
-68.514673835506 48.478857390269 18.862566871916 0 0
-68.514673695422 48.478857433362 18.917484236127 0 0
-68.514673641247 48.478857279890 18.916332686649 0 0
-68.514674270339 48.478857234251 18.927741832488 0 0
-68.514674025101 48.478856944060 19.074275227789 0 0
-68.514674233630 48.478856857621 18.875938881197 0 0
-68.514674665223 48.478856522471 18.820593579613 0 0
-68.514673980286 48.478855877735 19.006774007477 0 0
-68.514674827954 48.478855950422 18.866387980016 0 0
-68.514675413209 48.478855828240 18.823677122474 0 0
-68.514675262187 48.478855565129 18.920671956890 0 0
-68.514675815953 48.478855552660 18.749150767223 0 0
-68.514675917795 48.478855337176 18.726683616836 0 0
-68.514676062054 48.478855368298 18.679163736661 0 0
-68.514675587561 48.478854968901 18.722659434513 0 0
-68.514675084360 48.478854717475 18.709255495375 0 0
-68.514675147032 48.478854748292 18.670477649983 0 0
-68.514674556176 48.478854238283 18.864923025024 0 0
-68.514675024187 48.478854856113 18.578357802556 0 0
-68.514674384358 48.478854197852 18.614193651973 0 0
-68.514674674177 48.478853987393 18.501144198534 0 0
-68.514675041927 48.478853308599 18.560262849318 0 0
-68.514675494626 48.478853419719 18.517750295410 0 0
-68.514675671345 48.478853195049 18.621247734014 0 0
-68.514675667138 48.478853130049 18.517340697534 0 0
-68.514676076334 48.478853245348 18.482578425674 0 0
-68.514675022098 48.478852376770 18.665673707684 0 0
-68.514675675844 48.478852929856 18.416905743664 0 0
-68.514676056195 48.478853205613 18.375400402844 0 0
-68.514675013610 48.478852525593 18.658250571939 0 0
-68.514674942178 48.478853285757 18.413459150968 0 0
-68.514674827415 48.478853233829 18.617103705974 0 0
-68.514674793033 48.478853747150 18.262365509751 0 0
-68.514674729792 48.478853680041 18.317804519438 0 0
-68.514674768736 48.478853714220 18.314838024354 0 0
-68.514675321858 48.478853821899 18.267212280673 0 0
-68.514675240053 48.478853732728 18.316026532140 0 0
-68.514675076047 48.478853188663 18.508338034693 0 0
-68.514675893529 48.478853669805 18.320091550642 0 0
-68.514675489969 48.478853193187 18.517800385210 0 0
-68.514675540583 48.478853467297 18.210696155346 0 0
-68.514675714923 48.478853824560 18.218844912793 0 0
-68.514675575316 48.478853762791 18.267927029290 0 0
-68.514675386595 48.478854265874 18.225266038406 0 0
-68.514674954362 48.478854383849 18.220265872644 0 0
-68.514674757115 48.478854729893 18.222646446814 0 0
-68.514674581762 48.478854772379 18.220535212695 0 0
-68.514675092700 48.478854749771 18.224711392428 0 0
-68.514675117152 48.478854733804 18.224495739941 0 0
-68.514675087379 48.478854178933 18.212042608075 0 0
-68.514675242572 48.478854254879 18.163955972462 0 0
-68.514676019970 48.478854541192 18.229107739198 0 0
-68.514675219526 48.478854079444 18.209902325738 0 0
-68.514675561274 48.478854299506 18.372779206855 0 0
-68.514675298641 48.478854403129 18.216142342796 0 0
-68.514675276131 48.478854489799 18.270731861164 0 0
-68.514674819249 48.478854582924 18.163657214808 0 0
-68.514674432307 48.478854780484 18.216418629513 0 0
-68.514674103450 48.478854663397 18.263406144056 0 0
-68.514674135587 48.478854672582 18.264001822859 0 0
-68.514674915402 48.478854353034 18.249326933533 0 0
-68.514674959806 48.478854358701 18.255934017222 0 0
-68.514675046412 48.478854058995 18.429166929837 0 0
-68.514675038116 48.478854198849 18.221439099497 0 0
-68.514675236924 48.478854305099 18.229993317211 0 0
-68.514675217091 48.478854239434 18.367928912497 0 0
-68.514675321043 48.478854622514 18.271222999265 0 0
-68.514675311858 48.478854606725 18.315504957135 0 0
-68.514674203712 48.478854624881 18.209548131589 0 0
-68.514674417424 48.478855228474 18.172613583348 0 0
-68.514674335499 48.478855230881 18.223578817949 0 0
-68.514673813273 48.478855468009 18.222548492480 0 0
-68.514673781470 48.478855811255 18.229107740696 0 0
-68.514673106784 48.478855862865 18.123178092353 0 0
-68.514673113884 48.478855563941 18.120439204393 0 0
-68.514673146775 48.478855558478 18.120868613226 0 0
-68.514673269209 48.478855445273 18.170280434698 0 0
-68.514673543776 48.478855632231 18.125638621213 0 0
-68.514673470918 48.478855550576 18.174803629343 0 0
-68.514673172726 48.478855489004 18.169047060912 0 0
-68.514673042890 48.478855646099 18.118138427164 0 0
-68.514673033294 48.478855649487 18.118049044087 0 0
-68.514672566272 48.478855538941 18.212083387718 0 0
-68.514672713268 48.478856043629 18.116822311386 0 0
-68.514672119250 48.478855880306 18.160344008781 0 0
-68.514672360012 48.478856247206 18.120407688845 0 0
-68.514671737902 48.478856080974 18.192045450557 0 0
-68.514671672850 48.478856058972 18.209016815729 0 0
-68.514672342963 48.478856446310 18.224778246300 0 0
-68.514672115841 48.478856308707 18.218934036780 0 0
-68.514672826257 48.478856245799 18.304023844432 0 0
-68.514673100630 48.478856125275 18.370870267757 0 0
-68.514673314782 48.478856257144 18.271226385132 0 0
-68.514673259735 48.478856164391 18.319916098140 0 0
-68.514673343823 48.478856245025 18.320407043463 0 0
-68.514673310524 48.478856384202 18.351868869927 0 0
-68.514673393729 48.478856550487 18.421948741728 0 0
-68.514672780828 48.478856500949 18.464014515315 0 0
-68.514672520691 48.478856528830 18.410244056904 0 0
-68.514672527339 48.478856897345 18.416536311154 0 0
-68.514672451967 48.478857098377 18.419343098795 0 0
-68.514671719755 48.478857577039 18.367641974145 0 0
-68.514672057390 48.478857823557 18.428572846853 0 0
-68.514671307231 48.478858177876 18.429004791067 0 0
-68.514670609121 48.478857875228 18.414074097509 0 0
-68.514669870110 48.478858296419 18.465973914367 0 0
-68.514669918769 48.478859308394 18.429107740464 0 0
-68.514669416215 48.478859078516 18.469047061222 0 0
